# 3D point list with one line of data per point:
#   POINT3D_ID, X, Y, Z, R, G, B, ERROR, TRACK[] as (IMAGE_ID, POINT2D_IDX)
# Number of points: 224, mean track length: 14.094890510948906
3831 -0.093199623203541276 -0.34865365791442227 -0.5806166499378691 71 71 71 1.779621775174361 6 972 13 1010 17 1024 34 1025 46 1016 44 988 1 1008 57 974 56 947 50 971 58 968 47 981 48 1019 32 979 19 993 52 933 22 926 23 939 24 942
3832 -0.14189438635088769 -0.41587920578003174 -0.30604420538477095 71 71 71 1.9470296972602112 13 1011 36 964 42 1013 60 942 49 1045 55 989 14 1021 37 988 20 988 6 973 52 934
3833 -0.25271590791973997 -0.074739475854551485 -0.48763760458167776 70 70 70 1.9553427174772493 38 1048 13 1014 36 968 42 1018 11 995 46 1022 40 964 1 1012 56 953 16 1011 3 975 43 984 51 929 37 990 20 994 19 998 2 995 21 954
3834 -0.084077845538653218 -0.31327165217655578 -0.51178138088233061 71 71 71 1.820858704244418 9 935 13 1018 42 1022 11 1000 17 1028 45 1035 46 1029 60 951 50 982 54 984 25 1031 53 1009 4 1041 14 1026 30 1019 32 982 37 992 19 1002 7 990
3835 0.30432763330462376 -0.40736584753355648 -0.090180713867554385 71 71 71 1.8218838463954827 10 937 13 1020 11 1001 12 1031 45 1037 49 1052 4 1042 47 992 27 1022 30 1020 48 1027 29 1001 20 999
3836 -0.42713689579574304 -0.19367546502021901 -0.31321537034719027 71 71 71 1.9772688205391364 10 938 13 1022 36 975 42 1025 45 1041 55 999 18 1006 53 1011 4 1045 30 1022 39 944 37 996 5 991 19 1005 17 1032 35 1029 23 947 8 903
3837 0.47484683075959849 -0.12778942835964785 -0.14923476415996673 71 71 71 1.5211198496021452 38 1056 13 1024 36 978 11 1004 12 1034 60 955 25 1033 27 1023 3 978 2 1004
3838 0.39630861878073514 0.0914531563868764 0.76234819405214571 71 71 71 1.6377092438453911 6 985 13 1025 36 979 42 1026 17 1034 46 1034 56 961 49 1055 16 1015 25 1034 4 1046 47 993 27 1024 30 1023 43 992 28 976 35 1031
3839 -0.0096071981890417379 -0.26027838130271741 0.47008790760834079 71 71 71 1.7883357543962877 33 1064 13 1029 17 1035 45 1043 46 1035 44 991 60 956 15 1013 49 1056 4 1048 27 1025 39 947 32 987 37 997 5 993 52 942 23 948
3840 0.68793269623440167 -0.31710153677697928 0.25041704574303597 71 71 71 1.5744384403878477 9 940 13 1030 42 1028 11 1006 31 1063 45 1046 56 963 25 1037 18 1013 58 980 27 1028 7 997 22 937 23 950
3841 -0.45721736307628275 -0.24873414654587311 -0.537718320733513 71 71 71 1.750101466586915 38 1060 13 1031 17 1038 46 1037 55 1002 18 1014 39 948 29 1009 51 936 19 1010 2 1005 59 954
3842 0.27628721193991901 -0.1817357317288244 0.11382276707725948 99 1 0 2.1098678107300923 10 941 13 1032 12 1038 45 1047 57 991 56 964 25 1038 18 1015 39 949 29 1010 51 937
3843 0.053084705059279438 -0.44322748252637595 -0.48356303390112915 71 71 71 1.7430103205179142 33 1069 13 1034 36 984 42 1031 11 1009 31 1065 12 1040 17 1042 46 1039 16 1021 25 1041 4 1050 29 1012 32 991 20 1003 19 1012 7 998 26 1003 22 939 24 952 8 905
3844 0.23192251598713029 -0.33214238186546924 0.28441695645976173 71 71 71 1.9864899747498757 33 1071 13 1037 42 1034 12 1042 46 1041 44 997 15 1022 1 1024 56 966 50 989 47 1003 3 981 30 1031 29 1013 32 995 51 940 5 997 52 947 35 1036 21 962 22 941
3845 0.57550535078203535 -0.36813016063801851 0.31164447410994234 71 71 71 1.8030841866731784 33 1073 13 1038 31 1066 17 1044 44 998 40 970 60 961 25 1045 18 1017 47 1004 27 1031 14 1035 32 996 37 1001 5 998 41 1004 52 948 21 963 23 955 24 956
3846 0.088959980180701143 -0.051269731410935972 0.72385214310755508 70 70 70 2.0090916705715252 33 1075 13 1040 12 1043 46 1044 44 1002 40 971 60 963 53 1019 39 952 43 1000 51 942 37 1002 5 999 20 1007 2 1012 26 1008
3847 -0.22177748598178321 -0.26161310412264727 -0.26646500645739896 71 71 71 1.5149976627843142 6 996 13 1043 42 1039 60 968 54 996 55 1011 16 1030 4 1058 27 1035 37 1013 20 1011 19 1023 21 968
3848 -0.45017535302558237 -0.17977158003337904 0.020181007088765732 71 71 71 1.6745038721030068 9 952 13 1047 42 1046 11 1019 46 1050 44 1011 60 973 1 1032 56 975 16 1033 25 1051 47 1011 14 1043 3 991 51 948 20 1013 19 1027 8 912
3849 0.035801967548785368 -0.33438891834191126 -0.13518420489845676 71 71 71 1.6645000162843808 10 950 13 1048 11 1023 17 1052 40 978 57 1001 56 979 49 1068 25 1054 58 995 39 962 5 1009 7 1010 41 1011 22 951
3850 0.39654874566946235 -0.36131699658906369 0.11114905641185815 102 0 0 1.8479858443590502 10 951 13 1049 11 1024 58 996 48 1042 29 1021 51 952 20 1015 52 959 35 1046 21 972
3851 0.040020092159300164 -0.36614679273977557 -0.58256928619734105 71 71 71 1.7696872456619142 9 964 13 1059 12 1066 57 1014 50 1006 18 1042 14 1052 37 1023 20 1025 2 1029 59 980 24 971 8 927
3852 0.074430270656665437 -0.1355315829723531 -0.24875512962444524 71 71 71 1.8244749694997722 33 1095 36 1008 42 1058 17 1062 46 1065 44 1025 15 1046 1 1040 50 1007 58 1005 27 1049 30 1048 48 1050 39 970 37 1024 28 996 7 1020 52 972 21 979 23 977
3853 0.15150514520784089 -0.14323335167662327 -0.43334148128577182 71 71 71 1.8133129906319239 9 966 13 1063 17 1064 46 1067 15 1048 56 991 18 1046 53 1031 47 1022 27 1052 3 1011 30 1049 39 972 29 1028 51 969 20 1028 7 1021 21 981 23 980
3854 0.33548340417902678 -0.10712120308985279 -0.25194130987324559 71 71 71 1.7618792183508163 33 1099 13 1065 15 1049 56 992 49 1079 54 1011 25 1068 27 1053 14 1055 48 1052 5 1022 28 1000 22 969 44 1029
3855 0.15800490588429511 -0.329534484870112 -0.018404897172750068 71 71 71 1.3828469053509489 33 1100 13 1066 42 1061 34 1057 44 1030 56 993 49 1081 58 1007 27 1054 43 1017 37 1031 59 984 7 1023 8 931
3856 0.045117277125486882 -0.18396105792683548 -0.21261967467558701 70 70 70 1.9060444378397188 10 963 13 1067 31 1083 46 1070 57 1016 50 1010 54 1013 55 1033 16 1040 58 1010 39 975 29 1032 28 1003
3857 0.025748381521569219 -0.25134886158956032 0.70099329317260572 71 71 71 1.9692329940082354 38 1084 13 1069 36 1018 42 1066 46 1071 44 1035 56 994 16 1041 25 1073 4 1081 29 1034 19 1047 41 1027 52 976 22 972
3858 0.052349776124505948 -0.13319853137465928 0.33003806083091991 71 71 71 2.0140833068017931 9 975 13 1073 11 1038 17 1072 45 1079 1 1059 56 1002 57 1025 54 1020 4 1087 30 1059 48 1062 43 1030 28 1012 59 990 26 1036 24 980 8 939
3859 0.20192167382289594 -0.40808189953552287 -0.36217980343649947 71 71 71 1.7684066017940319 9 978 13 1075 42 1073 12 1082 34 1068 60 996 25 1082 18 1061 47 1033 29 1044 43 1036 5 1039 27 1068 2 1042 52 991 22 984 24 988
3860 -0.20711233667858397 -0.18268186814585943 0.1977576995684599 71 71 71 1.8885167071746802 38 1093 13 1078 36 1029 42 1077 31 1097 34 1072 44 1044 50 1021 55 1053 16 1047 53 1047 39 993 29 1048 20 1045 2 1047 59 995 41 1039 21 993
3861 -0.24057789106970656 -0.245469781594856 0.093901516624057171 85 1 0 1.655745840237056 33 1116 13 1080 31 1098 12 1087 45 1087 1 1062 57 1029 54 1025 16 1048 4 1094 39 994 37 1040 19 1062
3862 -0.54554394474868184 -0.35265357276540943 -0.062044614697186501 71 71 71 1.6170520468251754 33 1117 13 1084 31 1103 17 1084 50 1023 54 1032 55 1055 3 1026 48 1069 43 1046 26 1047 35 1072 22 988 8 955
3863 0.018727068744819178 -0.21489418182617859 -0.015835101331608731 71 71 71 2.0861495723484715 6 1035 13 1086 36 1033 42 1082 12 1093 17 1087 60 1006 56 1015 16 1056 53 1051 30 1069 51 985 20 1049 19 1068 2 1052 41 1044 52 999 23 1003 24 999
3864 -0.10775011310246371 -0.3032129107821428 -0.023799106077609683 71 71 71 1.904696189922503 10 978 13 1090 42 1087 17 1090 44 1052 15 1077 57 1036 16 1058 27 1074 39 1000 32 1030 43 1051 51 988 37 1049 28 1028 19 1072 41 1046 26 1053
3865 0.1700488316942812 -0.31702596079065337 -0.045333435269777983 70 70 70 1.8227329681693925 10 985 13 1095 31 1111 34 1088 15 1082 1 1073 56 1021 50 1037 54 1043 27 1079 3 1039 30 1076 39 1005 32 1037 28 1034 2 1062 41 1052 35 1085 21 1006 8 963
3866 0.30319052224901877 -0.10429108387408878 -0.39764243243911129 70 70 70 1.8996325364627873 33 1134 13 1097 46 1090 15 1084 1 1075 57 1043 43 1060 51 994 37 1054 7 1054 41 1054 21 1009 22 1002 23 1016
3867 -0.83209444167508373 -0.064539522832677138 0.18579060778286977 71 71 71 1.9474860195051324 38 1104 13 1098 36 1043 42 1099 17 1099 45 1100 15 1086 50 1042 18 1082 4 1105 47 1048 30 1079 43 1063 51 999
3868 0.012039193385656038 0.0074680651094225451 0.8504548563819756 70 70 70 1.674336484828997 38 1108 13 1102 36 1047 42 1100 17 1102 44 1061 40 1011 56 1025 50 1045 25 1105 27 1087 14 1089 39 1010 19 1083 2 1068 41 1057 8 973
3869 -0.24922164788153478 -0.091945384943376979 0.60244006897128699 70 70 70 1.8092136379118249 6 1050 13 1103 36 1048 42 1102 12 1110 46 1099 60 1023 49 1113 16 1065 18 1084 58 1034 4 1108 27 1089 3 1046 39 1011 5 1056 59 1017 7 1057 52 1009 24 1015
3870 -0.25405759721850918 -0.34262140808893149 0.35283148785621166 71 71 71 1.8546537417512481 33 1144 13 1109 31 1131 17 1111 46 1111 44 1079 40 1021 60 1041 57 1060 56 1035 49 1122 25 1108 4 1118 48 1102 29 1085 19 1096 41 1072 22 1020
3871 0.16303918965565817 -0.12711093579151836 -0.24105120308630684 71 71 71 1.9675910647407866 6 1067 13 1110 36 1065 34 1100 46 1114 1 1094 27 1105 30 1096 5 1072 20 1075 22 1022 8 983
3872 0.25861686465498379 -0.29895600415621026 0.94243985884478843 71 71 71 1.8771139721317021 38 1125 13 1112 15 1102 1 1097 18 1095 4 1121 30 1097 19 1102 2 1081 26 1071 52 1023 35 1098
3873 -0.41050450428960245 0.012329231330215559 0.71977137318154871 71 71 71 1.4632911856666326 33 1150 13 1114 31 1134 45 1125 46 1118 54 1066 58 1058 47 1072 48 1108 39 1028 37 1079 28 1055 26 1078 24 1029
3874 -0.54865696936021036 0.0078046922536408065 0.6314845812327381 70 70 70 1.868251573656327 10 1014 13 1117 42 1122 31 1141 34 1107 44 1090 57 1067 25 1119 47 1082 27 1113 39 1032 37 1087 5 1082 7 1078 41 1083
3875 -0.59447821220616892 -0.16615988555460842 0.0097056141664134121 71 71 71 1.8584660274916716 38 1135 13 1124 11 1088 31 1147 34 1109 46 1127 44 1100 50 1086 25 1127 53 1085 27 1121 30 1108 51 1038 28 1063 52 1034 21 1041
3876 0.40706733719078292 -0.41025948404228374 -0.32080705139432497 71 71 71 1.7033085655509592 6 1086 13 1126 42 1135 31 1152 44 1101 57 1076 55 1095 14 1112 30 1112 48 1122 28 1065 2 1101 7 1089 21 1044 24 1043
3877 0.38465969193578198 -0.22781581450897556 0.55482337184370123 71 71 71 1.646947259514723 6 1088 13 1127 42 1137 44 1102 15 1118 49 1137 55 1097 25 1129 3 1088 32 1068 43 1105 20 1088 2 1102 26 1091 52 1037
3878 -0.77302563606657304 -0.13833789104070676 0.48664128841672538 71 71 71 1.7628700582080066 9 1031 13 1130 11 1093 12 1140 45 1141 40 1040 15 1124 47 1099 29 1110 5 1092 2 1107
3879 0.21394082293191846 -0.10858462197092461 0.56347058838009989 71 71 71 1.7046476162443587 6 1094 13 1131 36 1100 42 1143 31 1161 12 1145 44 1110 40 1043 60 1069 15 1126 53 1101 58 1074 14 1121 29 1113 32 1073 5 1097 23 1060 24 1054
3880 -0.0069685454405412628 -0.064303085070152671 0.11347496862421837 64 60 51 1.8414865145361772 33 1175 13 1133 42 1145 11 1097 34 1124 15 1129 57 1084 49 1147 18 1116 3 1099 39 1045 43 1110 5 1099 20 1098 2 1114 41 1096 26 1099 8 1008
3881 0.44115740885320937 -0.33207146882430094 -0.34548022575323023 71 71 71 1.379562442680744 33 1184 13 1137 34 1133 55 1114 16 1114 30 1120 20 1103 19 1129 21 1060 8 1016
3882 -0.52926761330590177 -0.082012616974489333 -0.12142301329579136 71 71 71 1.5256841192944093 9 1046 13 1138 11 1105 31 1171 12 1152 46 1146 40 1055 56 1071 50 1106 16 1116 47 1111 51 1055 5 1106 23 1067 24 1064
3883 0.70929355429413321 -0.15262514421492662 0.055660979247905994 71 71 71 1.7759237191924389 6 1106 13 1140 36 1105 49 1151 25 1148 4 1147 27 1142 14 1133 39 1055 37 1109 19 1132 2 1128 52 1054
3884 0.056820114758756798 -0.17481934152461903 0.24230916568046168 71 71 71 1.5874882260086147 9 1052 13 1146 12 1156 50 1112 55 1117 27 1143 39 1062 29 1132 51 1061 5 1113 22 1059
3885 0.23913524820775456 -0.3430497629485349 -0.58422927683348003 71 71 71 1.6850051159600219 38 1159 13 1147 36 1114 57 1098 49 1159 16 1124 18 1129 27 1144 30 1130 26 1112 22 1060
3886 -0.58834208239252272 -0.30539907301033514 -0.47408642605865775 71 71 71 1.4443661825753853 38 1169 13 1150 12 1165 40 1075 55 1126 25 1158 14 1142 43 1134 51 1070 28 1100 20 1118 26 1122 21 1071 24 1076
3887 -0.13820540595602787 -0.22181647370424462 0.84991554095932975 71 71 71 1.8997674332920738 38 1171 13 1151 42 1165 17 1165 4 1161 48 1150 43 1136 5 1119 28 1101 59 1074 7 1122 41 1115 26 1123 24 1078 8 1030
3888 -0.76567207559384398 -0.065341111320811246 0.63121304523653965 71 71 71 1.7017331407263483 6 1124 13 1154 34 1156 45 1169 44 1137 1 1134 4 1169 28 1104 7 1125 8 1033
3889 0.80736102254034514 -0.13421560367688301 -0.029674152130187703 71 71 71 1.5127423449708817 6 1126 13 1155 36 1124 12 1168 46 1167 40 1082 60 1098 56 1082 50 1122 16 1132 25 1160 14 1147 28 1106 59 1081
3890 0.01841786758119171 -0.33916738690696274 -0.66231105770203946 71 71 71 1.6426523983568346 9 1062 13 1157 11 1127 31 1188 34 1160 44 1139 18 1136 53 1127 58 1105 14 1149 30 1145 48 1157 39 1077 51 1076 26 1125 22 1068 24 1083 8 1036
3891 -0.38085619071310867 -0.20586002157036978 0.7943272270850037 71 71 71 1.1490641551649823 9 1069 13 1164 36 1131 11 1131 34 1165 32 1108 28 1112 7 1134 35 1146
3892 0.14756127298723168 -0.16717655464947098 0.40397007489078984 71 71 71 1.8666359846454763 6 1134 13 1167 58 1113 27 1162 14 1159 30 1153 39 1079 32 1109 20 1127 2 1151 41 1126 21 1080 22 1073 24 1086
3893 0.41143842842932543 -0.43923853455677936 -0.62192571508583483 71 71 71 1.9233032176101099 9 1078 13 1171 42 1183 31 1200 34 1170 60 1105 15 1164 1 1145 57 1121 16 1139 39 1084 28 1118 7 1139 41 1131 52 1089 24 1092
3894 0.83032815247679803 -0.0041371074439988473 0.10973328875873828 71 71 71 1.7884985599369272 10 1067 13 1173 12 1185 34 1171 40 1098 15 1165 1 1146 49 1183 55 1146 4 1180 29 1148 32 1115 43 1149 5 1137 21 1086 22 1080
3895 -0.42837099953362029 0.031664640085114208 0.2756508674285324 71 71 71 1.7100553220279642 33 1218 13 1178 36 1139 31 1201 12 1187 17 1186 60 1109 57 1125 49 1186 54 1119 16 1143 14 1165 30 1168 19 1162 7 1144 52 1091 23 1102
3896 0.25072024758667855 -0.39029404891575942 -0.62907966854599628 71 71 71 2.0413963286967562 6 1144 13 1183 31 1204 45 1195 44 1155 50 1139 53 1153 14 1169 30 1173 48 1176 39 1091 32 1118 37 1151 20 1136 52 1100
3897 0.90700556645180064 -0.037976547761856778 0.058882712153060852 159 147 133 1.999714622932224 38 1195 13 1184 11 1148 12 1194 46 1190 60 1114 50 1141 25 1181 47 1143 39 1093 43 1155 20 1137 19 1164
3898 0.10182951485474756 -0.011406635416104614 -0.003428059762597177 71 71 71 1.5279090960947246 33 1229 13 1190 36 1155 11 1153 15 1183 18 1160 4 1194 14 1173 3 1143 48 1184 32 1124 5 1152 28 1135 20 1146 22 1094 24 1104 8 1068
3899 0.49062617179413676 -0.11609560689808468 0.95723070733754523 71 71 71 2.0646656855833845 33 1230 13 1191 34 1182 15 1184 49 1196 55 1163 50 1149 30 1178 32 1125 21 1109 23 1113 24 1105
3900 -0.51762551772741983 0.063277703736148466 0.20013481696946128 71 71 71 1.829553426461231 38 1206 13 1192 34 1184 46 1201 1 1162 56 1113 18 1164 47 1153 27 1185 48 1185 51 1098 20 1147 7 1157 21 1111
3901 0.22651816501128946 0.036022605923611041 0.46767766058865401 71 71 71 1.9394213346867215 9 1100 13 1195 11 1159 31 1219 12 1211 17 1205 34 1188 15 1188 50 1153 27 1190 14 1179 39 1108 51 1101 28 1145 20 1153 35 1177 22 1100 24 1112 8 1072
3902 -0.37326558909078572 -0.21697280369314773 0.46699019221572241 71 71 71 1.8872721862881179 9 1102 13 1196 34 1189 45 1207 55 1169 16 1157 53 1169 58 1140 4 1202 3 1149 32 1134 37 1159 7 1163 41 1154 26 1160 35 1178 21 1115 23 1121 8 1073
3903 0.43366413636453793 -0.31102356814348142 0.70083291960088401 71 71 71 1.6227212576471772 9 1106 13 1199 36 1165 17 1208 34 1193 57 1143 16 1160 18 1170 30 1186 39 1110 43 1166 20 1156 52 1114 24 1113
3904 0.75395727685216896 -0.10298436906476122 0.55558231765893773 71 71 71 1.9331423714788916 9 1107 13 1201 11 1169 31 1223 55 1174 16 1163 53 1175 14 1183 43 1168 19 1185 41 1157 21 1120
3905 -0.10517163405912835 -0.18316815408718173 0.26940443254473423 71 71 71 1.6239282795584713 6 1159 13 1202 36 1167 12 1215 45 1210 40 1132 57 1144 56 1121 50 1158 58 1142 3 1153 29 1181 37 1165 5 1159 59 1114 7 1167 41 1158 21 1121 23 1125
3906 0.43550461463045087 -0.022032870475525424 -0.16152513764310872 71 71 71 1.6401048965020379 6 1160 13 1203 31 1225 17 1209 60 1129 56 1123 49 1205 18 1171 14 1184 30 1188 39 1111 43 1169 20 1158 41 1160 26 1162 21 1123 22 1104 23 1126 24 1115
3907 0.73627613043479068 -0.36946485983600891 0.053235839641116077 71 71 71 1.455503280364322 6 1163 13 1205 11 1172 31 1227 12 1218 17 1212 46 1210 15 1191 53 1178 4 1209 14 1186 48 1202 39 1113 32 1139 5 1160
3908 0.72403142582159075 -0.15481632241816171 -0.1216090639535522 71 71 71 1.3353564913048617 6 1164 13 1209 36 1173 11 1175 34 1197 18 1178 14 1188 29 1188 43 1176 52 1120
3909 0.54012585153508463 0.090329567005160927 0.81508719028544441 70 70 70 1.7422444827156756 33 1249 13 1210 17 1214 34 1199 46 1216 60 1137 56 1135 49 1213 54 1143 18 1179 53 1183 58 1148 48 1207 29 1190 28 1151 59 1120 52 1122
3910 -0.60538404778794663 -0.13616721522274119 0.2734649187387827 71 71 71 1.7594536352360903 38 1218 13 1212 36 1175 42 1216 17 1217 44 1180 60 1138 50 1169 54 1144 32 1150 51 1111 7 1174 35 1190 11 1177 24 1123
3911 0.64820667032574075 -0.37621692404926876 0.021982417541570903 71 71 71 1.8469200486834725 10 1105 13 1215 36 1181 11 1182 17 1223 46 1225 56 1141 50 1176 54 1150 25 1208 18 1184 27 1208 3 1170 20 1169
3912 0.17223845688800801 -0.16500418326219954 0.42701260733137358 71 71 71 1.8400893667045588 6 1182 13 1222 42 1236 44 1198 1 1193 56 1153 55 1205 18 1200 58 1167 47 1184 30 1212 48 1226 32 1164 37 1187 41 1178 22 1134
3913 0.27875570513545822 -0.43452275540123092 -0.24973725004098257 71 71 71 1.749480000857794 9 1136 13 1223 17 1233 44 1199 14 1202 3 1181 48 1227 29 1209 59 1145 41 1180 52 1145 21 1150 23 1150
3914 0.18010671249544502 0.030946204330167301 0.57161763512423458 71 71 71 1.7436191856907091 6 1185 13 1224 31 1250 12 1238 17 1234 34 1216 46 1239 56 1155 16 1191 53 1204 27 1223 14 1204 3 1182 39 1135 43 1191 5 1181 52 1146 21 1151 22 1137 24 1144
3915 0.2242024620146284 -0.24446986964811027 0.71860047278976324 70 70 70 1.5610956944890755 6 1187 13 1226 36 1196 11 1196 34 1217 60 1154 15 1219 49 1234 25 1226 27 1225 32 1167 28 1168 19 1215 2 1196 26 1190 22 1138
3916 0.30384274145404627 -0.45805940715759436 -0.55371599926208503 71 71 71 1.8916278600423431 9 1138 13 1227 12 1239 40 1159 50 1189 55 1209 16 1192 53 1206 3 1183 30 1216 28 1169 19 1216 25 1227 35 1208 22 1139 24 1146 8 1107
3917 -0.664257836058044 -0.17134328673560764 0.49425267793648819 71 71 71 1.6197851805193615 33 1267 13 1228 12 1241 34 1219 45 1236 15 1222 16 1194 48 1229 39 1138 32 1168 51 1136 37 1192 5 1184 35 1209 8 1109
3918 0.22231299740719221 -0.24012152445677681 0.82056585789175451 71 71 71 1.8350169701269037 10 1124 13 1230 36 1198 12 1246 46 1242 1 1197 49 1241 50 1195 14 1209 20 1191 19 1220 26 1196 8 1113
3919 -0.36309866812968333 0.031312181654624988 -0.056788411546097761 71 71 71 1.8485326470370866 6 1191 13 1231 42 1241 40 1165 1 1198 57 1176 54 1171 55 1215 25 1230 58 1174 47 1189 27 1231 48 1233 32 1173 52 1148 35 1211 23 1158
3920 0.16556400757194437 -0.19175401728965702 -0.27211956638265733 71 71 71 1.7217035018284668 38 1239 13 1232 36 1200 17 1241 45 1240 46 1244 15 1224 49 1242 50 1197 14 1212 39 1140 29 1215 43 1195 20 1193 26 1197 21 1159 8 1116
3921 0.28856357565173729 0.012085680741347388 0.42684287889345796 70 70 70 1.8821037080021286 33 1273 13 1235 15 1229 54 1175 55 1220 16 1204 47 1195 3 1191 51 1142 28 1179 20 1198 41 1186 26 1201 22 1150
3922 -0.14967084768384703 -0.32483323251396945 -0.57529661461492654 71 71 71 1.8475305104107544 6 1197 13 1237 36 1203 44 1212 60 1167 18 1205 53 1213 4 1240 14 1217 39 1147 37 1202 24 1149
3923 -0.5124324786255765 -0.23611020821310147 -0.07160352702724268 71 71 71 1.8086816350519646 33 1276 13 1238 36 1205 31 1265 34 1230 49 1251 4 1241 48 1244 32 1183 5 1192 28 1182 20 1201 26 1203 8 1123
3924 0.83936507738492971 -0.031241460615055616 0.12800065578391923 71 71 71 1.8154671741608137 6 1207 13 1244 42 1255 46 1255 40 1184 60 1175 15 1236 56 1174 55 1232 16 1216 58 1187 4 1246 14 1224 48 1252 39 1153 51 1149 59 1157 7 1199 52 1157 35 1218 21 1167
3925 0.70483206642154084 -0.40292600547017099 0.22185310869821229 67 63 57 1.8623388255566602 6 1209 13 1245 36 1213 11 1214 17 1252 45 1257 50 1209 55 1236 53 1220 4 1248 27 1247 29 1227 5 1199 2 1215 59 1159 52 1159 21 1169 22 1158 8 1129
3926 0.61467626406231146 -0.17689444191823972 -0.61774732378175035 71 71 71 1.743620943052453 9 1160 13 1250 42 1260 31 1273 12 1261 1 1214 57 1197 53 1222 14 1229 30 1238 32 1193 2 1218 59 1162
3927 0.86343243483258791 -0.2058758062783044 -0.34355815894994018 71 71 71 0.81276866206598752 38 1264 13 1254 12 1263 5 1205
3928 0.36053032288395037 0.016073550837670446 0.22995751009596549 70 70 70 1.5848842422601463 9 1163 13 1255 12 1264 34 1241 15 1241 57 1203 16 1220 29 1231 43 1208 51 1157 2 1222 24 1161 8 1135
3929 0.59761552135330853 -0.26305395724866565 0.77032320429935686 71 71 71 1.6197110786909825 10 1146 13 1256 11 1221 60 1185 49 1263 50 1216 18 1218 43 1211 22 1166
3930 0.56921664097636659 -0.05630059077938631 -0.20669768992852827 70 70 70 1.7656350785058024 38 1270 13 1258 12 1269 17 1261 34 1244 45 1270 60 1189 25 1258 53 1229 47 1214 51 1164 28 1196 59 1174
3931 0.45130265768999928 -0.18764477824129117 0.8696204082873209 71 71 71 1.5882801722950366 33 1290 13 1259 34 1245 15 1253 1 1224 56 1185 47 1215 48 1263 32 1199 21 1176
3932 0.073942730031182624 -0.079855437945734409 0.18207398605826947 71 71 71 1.7480309713107547 6 1231 13 1261 11 1233 12 1273 45 1273 15 1256 49 1272 16 1231 18 1226 27 1261 14 1241 32 1202 5 1214 28 1198 2 1233 41 1208 24 1167
3933 -0.21042830343954644 0.075712282765113964 0.46728986662290589 71 71 71 1.9022297090652165 10 1159 13 1262 12 1274 17 1266 34 1249 46 1272 49 1275 18 1228 29 1239 37 1225 5 1216 2 1235 52 1173
3934 0.31408672462846687 -0.46727247696433788 -0.55514103315436891 71 71 71 1.9840708385152719 38 1278 13 1264 31 1291 17 1269 56 1191 54 1198 25 1268 18 1230 53 1235 58 1200 3 1220 48 1265 51 1171 2 1237 59 1181 7 1220 41 1211 24 1172 8 1145
3935 0.35519455411029133 -0.46879141003426905 -0.53960063970168126 71 71 71 1.5407035514518592 33 1296 13 1265 42 1280 31 1292 12 1277 46 1274 54 1199 47 1224 30 1257 51 1172 20 1232 22 1174 24 1173
3936 0.76447532052011025 -0.34885330724279334 0.53588464119634027 71 71 71 1.7916003867417498 10 1163 13 1266 11 1237 15 1260 54 1201 47 1225 48 1266 39 1173 19 1244 26 1228 52 1176 22 1175 8 1147
3937 0.91138388757722644 -0.12363358756834666 -0.35983249610387064 71 71 71 1.5029249455764306 33 1303 13 1272 44 1241 60 1203 39 1175 19 1252 59 1189 35 1244 8 1151
3938 -0.26494286446015608 -0.26681985852347395 -0.22460648979177777 71 71 71 1.6265980355475611 33 1305 13 1274 36 1237 1 1240 49 1287 55 1262 16 1241 25 1276 58 1209 48 1271 39 1176 43 1238 2 1245 7 1225 23 1195
3939 0.48225385393333603 -0.36993958296972601 0.22732038157822704 71 71 71 1.7857838773106685 33 1306 13 1275 46 1281 1 1241 57 1216 56 1199 50 1240 55 1263 4 1269 3 1233 30 1264 39 1177 29 1252 43 1239 20 1237 8 1154
3940 0.89366574691504663 -0.29296779248798244 -0.057559712541253139 71 71 71 1.9025998319852857 6 1244 13 1277 42 1289 11 1242 45 1281 4 1270 47 1235 3 1235 48 1272 39 1178 37 1234 23 1196 24 1184
3941 -0.031361026538499093 -0.12935807906725982 -0.39044852511308314 71 71 71 1.7547898210372421 33 1313 13 1281 36 1240 11 1249 31 1305 46 1285 15 1270 32 1220 28 1218 2 1248 7 1231 41 1225 26 1241
3942 0.5036023881037448 0.039533841203887553 0.6904659642929929 71 71 71 1.8550768399008568 38 1284 13 1282 45 1285 46 1287 57 1223 56 1204 49 1296 50 1248 55 1268 47 1242 27 1274 51 1185 37 1242 5 1233 20 1248 41 1226 52 1190 24 1190
3943 -0.57098628557852638 -0.09073144697201177 -0.15044435975437015 71 71 71 2.0750334135567994 33 1323 13 1284 34 1264 57 1228 54 1214 55 1276 16 1248 3 1243 51 1193 59 1200 7 1236 26 1249 52 1195 22 1194 23 1207 24 1196 8 1164
3944 -0.36582588595330595 -0.40194136472841685 -0.33983572448518523 71 71 71 1.6956221662606126 6 1253 13 1285 42 1301 17 1284 34 1265 45 1290 47 1249 14 1267 3 1244 30 1271 32 1224 43 1247 20 1251 7 1237 41 1234 52 1196 21 1208
3945 0.24689057474418796 -0.13216283466549908 0.77717937343579568 71 71 71 1.6558826061788376 38 1289 13 1289 17 1288 45 1295 46 1296 57 1233 49 1300 16 1251 30 1280 28 1226 52 1202 23 1213
3946 0.46075148617814604 -0.24481445785189979 -0.45274205669553141 71 71 71 1.3603577677695329 6 1259 13 1290 42 1307 34 1268 60 1217 18 1250 53 1255 14 1272 48 1288 37 1252 5 1240 20 1254 24 1199
3947 -0.45605753652753994 -0.14733787419123531 -0.086332621959931605 71 71 71 1.5983954703704741 33 1332 13 1295 42 1314 12 1311 45 1304 40 1227 50 1263 4 1295 14 1280 32 1234 43 1256 5 1246 28 1232 20 1261 7 1244 41 1239 35 1271 24 1204
3948 0.090627530928130348 0.021082585502210732 0.16154852606383391 71 71 71 1.4539283993332965 38 1295 13 1296 42 1315 17 1290 44 1268 15 1282 1 1262 55 1289 16 1254 3 1255 48 1291 59 1217 26 1257 21 1217
3949 -0.526049522141395 -0.047766023303943146 0.18903314618701772 71 71 71 1.6788535279335093 6 1263 13 1298 36 1252 31 1324 56 1223 16 1255 27 1286 29 1271 28 1233 19 1272 8 1175
3950 0.28048682049640716 -0.22915833851896281 -0.54688709310513639 71 71 71 1.9817759481300947 33 1334 13 1302 12 1317 34 1278 45 1308 44 1272 15 1287 58 1228 47 1261 39 1201 32 1238 51 1205 19 1276 59 1219 7 1249 52 1215 35 1275 21 1224 24 1207 8 1177
3951 0.56035655719054456 -0.3967732937929081 0.25324967530158793 71 71 71 1.8767218974556852 6 1265 13 1303 31 1327 12 1318 40 1233 15 1288 57 1241 53 1262 58 1229 47 1263 48 1295 32 1239 37 1260 28 1237 20 1266 19 1277 52 1216 35 1277 22 1211 23 1224
3952 -0.6361994634439776 -0.25346652588765467 0.20401531163463921 70 70 70 1.773725479727474 33 1340 13 1308 36 1261 31 1334 12 1327 45 1314 1 1275 56 1234 54 1230 55 1296 58 1233 47 1273 30 1293 29 1281 43 1267 51 1215 26 1266 22 1216 23 1229 24 1215 8 1181
3953 0.45731396729685364 -0.086301382653684727 -0.60352204815459776 70 70 70 1.6392862961563146 9 1215 13 1310 60 1230 57 1247 49 1317 54 1231 55 1297 53 1269 4 1305 14 1294 30 1296 32 1249 51 1216 37 1266 52 1226 22 1217 23 1230 8 1182
3954 -0.055505987382894806 -0.27569926726925564 -0.36440346026122961 71 71 71 1.8099523696463364 9 1224 13 1317 46 1313 40 1248 15 1299 49 1330 50 1276 18 1265 3 1278 30 1302 48 1308 39 1219 29 1290 32 1255 20 1275
3955 0.3543515551530117 -0.36324119772268948 -0.0011554775062227879 71 71 71 1.9138163094572309 33 1357 13 1320 36 1280 46 1320 57 1260 56 1253 54 1243 55 1310 58 1245 27 1312 51 1227 37 1287 22 1235 24 1229 8 1200
3956 0.52303571613622368 -0.038859058597146952 0.21670449372999168 71 71 71 1.8044814161484324 6 1285 13 1321 34 1296 45 1328 1 1289 55 1312 18 1273 53 1290 27 1313 32 1262 51 1228 28 1256 20 1282 7 1263 41 1260 23 1242 24 1231
3957 -0.43177798619154145 -0.28986213299088848 0.39169003461290613 71 71 71 1.7273556457723125 9 1230 13 1322 42 1336 12 1341 17 1319 44 1292 56 1256 49 1336 16 1273 18 1275 4 1320 3 1287 29 1301 43 1285 37 1289 5 1271 19 1303 2 1285 21 1246 23 1246
3958 -0.47532142246843828 -0.27689723069853367 -0.19814883758775659 71 71 71 1.627020432075525 9 1232 13 1324 42 1337 12 1343 45 1331 44 1293 15 1313 50 1284 16 1274 4 1321 27 1314 43 1286 20 1285 22 1238 24 1234 8 1202
3959 0.42413553629203166 -0.27178328753703557 -0.30583732250355089 71 71 71 1.9978169800620464 6 1291 13 1326 12 1346 46 1324 40 1258 15 1317 54 1248 11 1302 16 1276 18 1278 53 1294 58 1248 3 1290 51 1233 8 1206
3960 0.84228868976320648 -0.09897021722487645 0.33041282266199545 71 71 71 1.7655400001053339 9 1235 13 1327 12 1347 44 1296 15 1319 54 1249 25 1322 53 1295 4 1322 14 1312 3 1292 39 1229 37 1292 41 1262 8 1207
3961 0.58974325496559166 -0.11716702517830957 0.4106473022399616 71 71 71 1.6984436744934204 6 1295 13 1332 42 1344 11 1308 12 1354 34 1302 1 1294 18 1282 53 1301 58 1254 47 1293 27 1320 30 1319 48 1330 39 1232 32 1268 5 1279 7 1272 41 1265 21 1252 8 1212
3962 -0.65416093963996524 0.053342212459366878 0.53275831999843559 71 71 71 1.5569999381677284 10 1222 13 1333 11 1310 34 1303 40 1265 60 1257 1 1295 16 1281 25 1325 4 1328 14 1317 3 1294 2 1289 7 1273 26 1292 35 1311
3963 -0.49638363965017168 -0.13199407050381576 -0.0054820273866772878 70 70 70 1.9252699401209514 6 1296 13 1334 36 1288 17 1326 45 1339 46 1330 44 1306 15 1325 49 1344 54 1252 18 1286 53 1302 48 1333 32 1271 43 1297 5 1280 19 1309 59 1256 41 1268 24 1243
3964 0.52510790825062836 -0.36728724742194963 -0.59521701758912804 71 71 71 1.6765338055303127 33 1373 13 1337 40 1267 1 1298 25 1328 58 1258 51 1240 59 1259
3965 0.40585445876345888 -0.18385795764752103 0.48942388661034331 71 71 71 1.6643516839340309 6 1301 13 1338 44 1312 15 1328 1 1300 56 1265 50 1295 54 1254 53 1303 47 1298 32 1272 43 1299 24 1245
3966 -0.74931711361027875 -0.17843887632609942 0.27021143149046456 71 71 71 1.3817066385564676 10 1228 13 1339 42 1348 11 1315 12 1359 47 1299 2 1296
3967 0.44376629674723456 -0.28567865041130386 0.73313447836153967 71 71 71 1.9118929691979223 10 1232 13 1342 42 1352 11 1318 34 1311 49 1348 54 1257 55 1328 25 1334 18 1291 47 1302 14 1329 3 1301 20 1293 7 1279 52 1252 35 1318 8 1218
3968 0.30905659240743527 -0.32218644821140879 0.085275134697584451 80 0 0 1.7394265243564377 6 1311 13 1347 17 1336 40 1276 15 1340 54 1263 25 1343 53 1314 48 1340 39 1247 7 1286
3969 0.7380398736406486 -0.025738595488403737 0.20118545807953894 71 71 71 2.077328142285737 9 1256 13 1348 17 1337 46 1340 60 1272 11 1323 49 1354 50 1309 37 1304 5 1290 35 1325 22 1262 8 1227
3970 -0.26960864405456025 -0.29306005323236473 0.12624068795704768 71 73 72 1.6065183546380564 9 1262 13 1350 11 1327 31 1375 56 1281 49 1360 50 1312 16 1298 25 1348 30 1335 51 1256 37 1307 28 1275 26 1308 24 1258
3971 0.51594045420370316 -0.30343775573453696 0.13371321005769621 88 0 1 1.7570329086581487 33 1387 13 1351 36 1304 31 1377 12 1368 17 1341 45 1361 57 1289 16 1299 25 1349 58 1271 3 1314 20 1304 24 1260
3972 -0.21198977845261346 -0.087712333005058318 0.39124309478563901 70 70 70 1.7662252578209945 6 1317 13 1352 42 1367 11 1329 17 1343 44 1326 60 1281 49 1362 50 1315 25 1350 4 1347 29 1326 51 1257 20 1305 26 1310 35 1327 21 1271 22 1269 23 1269
3973 0.28636322372848794 -0.04466151983160381 -0.20843558571546678 71 71 71 1.7420181662239667 10 1243 13 1353 42 1368 11 1330 12 1369 40 1282 60 1282 55 1343 47 1310 3 1315 5 1298 21 1272 24 1261
3974 -0.31643422525861586 -0.16786264687145749 -0.14180623284629437 71 71 71 1.7499519910591272 9 1271 13 1361 42 1378 17 1351 40 1289 1 1326 18 1314 47 1319 14 1351 3 1321 39 1259 51 1267 28 1288 41 1297 35 1333 21 1282 23 1279 24 1269
3975 0.28762177643626063 0.04495140128112262 0.80644450945117652 71 71 71 1.2890339686589785 38 1356 13 1362 36 1312 11 1341 46 1355 40 1290 60 1290 49 1370 39 1260 29 1337 22 1278
3976 0.83812742059365131 -0.078204389865581508 -0.091434375242897215 71 71 71 2.0020805180854722 6 1327 13 1366 42 1384 11 1345 34 1331 25 1364 14 1353 32 1298 51 1270 20 1312 41 1300
3977 0.740385913373655 -0.27302968843453296 0.4279763287173099 71 71 71 1.8701082762087453 9 1276 13 1368 36 1321 11 1347 31 1391 12 1384 17 1355 44 1339 40 1297 57 1305 50 1334 18 1321 47 1323 3 1326 39 1267 43 1322 51 1273 26 1331 21 1286 23 1285
3978 0.3867404932690291 -0.13526620997457833 0.64530250076725637 71 71 71 1.5636214704717908 9 1281 13 1371 42 1390 45 1379 56 1302 54 1283 25 1374 53 1337 58 1284 4 1369 47 1327 48 1358 39 1272 32 1308 43 1329 51 1278 37 1331 20 1318 2 1324 8 1248
3979 0.4943107053057923 -0.29608721771295049 -0.14383828471523488 71 71 71 1.7290182957234208 33 1407 13 1374 15 1363 1 1344 56 1303 49 1380 14 1360 3 1329 48 1359 32 1309 7 1317 22 1290 24 1277
3980 0.76238079678863135 -0.047146915839518105 0.67043766525399073 71 71 71 1.4236977224473122 10 1262 13 1376 54 1286 53 1341 47 1333 29 1351 26 1336 22 1292
3981 0.40156567857809389 -0.37863223747482549 -0.29570897883642927 71 71 71 2.0583882773858089 38 1375 13 1379 36 1331 31 1406 45 1386 50 1341 58 1293 30 1355 28 1305 52 1286 43 1337 35 1344 22 1296 23 1299 8 1252
3982 -0.24015403640626604 -0.099001814523719339 -0.27393492308023742 71 71 71 1.9797958909668967 33 1415 13 1382 31 1411 12 1398 17 1370 46 1377 40 1312 56 1312 16 1329 18 1335 47 1340 14 1367 3 1340 43 1338 51 1292 19 1344 41 1316 26 1349 35 1347 21 1306
3983 0.77351758629819312 -0.021126775862293418 0.3141087682401667 71 71 71 1.590788951319656 33 1416 13 1383 36 1335 11 1362 31 1412 34 1341 56 1313 49 1392 50 1345 16 1330 25 1388 14 1368 51 1293 59 1298 41 1317 22 1299
3984 -0.24801586598478037 -0.01998232748965972 -0.097966731907624199 71 71 71 1.6371336479153233 6 1349 13 1388 12 1402 34 1345 60 1310 55 1381 25 1392 47 1344 51 1298 28 1313 8 1257
3985 0.14447268399143809 -0.14883371094284253 -0.51791025638581822 70 70 70 1.7570661035045001 33 1424 13 1394 45 1403 40 1319 1 1362 54 1301 55 1388 47 1350 29 1365 43 1346 51 1306 5 1331 28 1320 2 1342 52 1294 22 1307 24 1294 8 1265
3986 0.5677091007176045 -0.23971847642004368 -0.17055146931369858 71 71 71 1.9965367682359976 6 1353 13 1395 36 1346 42 1407 34 1350 46 1388 54 1302 25 1399 53 1355 30 1367 39 1289 2 1343 59 1303 52 1295 24 1295
3987 0.63673869043787601 -0.24320122661424853 -0.26602512968016334 71 71 71 1.7947719952233188 6 1358 13 1397 36 1350 1 1365 54 1305 18 1344 14 1378 48 1371 41 1325 52 1298 22 1309
3988 -0.63583398513205669 -0.32595708350202596 -0.26900320173105557 71 71 71 1.9125008607444545 10 1276 13 1398 36 1352 11 1379 46 1391 56 1330 49 1405 55 1390 16 1342 18 1345 14 1379 20 1333 41 1327 26 1357 24 1299
3989 0.46062447999291978 -0.20167877994520983 0.46861499287465963 71 71 71 1.8190258512177908 38 1399 13 1401 60 1317 56 1335 55 1392 4 1389 28 1326 19 1355 2 1352 59 1307 7 1335 52 1302 35 1354
3990 0.84114476143949934 0.0043185516187251895 0.25544604036299445 71 71 71 1.6614574764314722 10 1279 13 1402 44 1377 40 1324 56 1336 25 1402 4 1390 14 1381 51 1311 5 1336 26 1359 35 1355 23 1314
3991 -0.63464908396419828 -0.13524655167121025 -0.40912230424381596 70 70 70 1.667999814400851 10 1280 13 1403 11 1383 17 1382 44 1378 60 1318 1 1367 57 1333 56 1337 25 1403 58 1307 47 1357 14 1382 26 1360 22 1310 24 1302
3992 -0.18969120512300175 -0.0018430742946124032 0.64849687379422316 71 71 71 1.8508349509854665 33 1431 13 1406 11 1384 12 1412 40 1325 15 1385 50 1365 16 1345 25 1404 18 1347 58 1309 47 1358 14 1384 48 1376 39 1300 20 1336 2 1354 52 1304 24 1303
3993 0.68240729596310623 -0.1702792070711599 0.60143997180604325 71 71 71 1.5897474993428899 6 1366 13 1409 42 1412 17 1387 45 1410 15 1387 56 1339 50 1368 54 1308 27 1378 14 1387 30 1373 39 1303 29 1369 43 1358 51 1314 8 1277
3994 0.61623577422091547 -0.26569175376452259 0.55707892386771629 71 71 71 1.4843397836688998 9 1306 13 1411 11 1386 45 1411 44 1382 60 1327 57 1336 56 1341 55 1396 25 1407 28 1332 20 1340 19 1359 7 1339 52 1309
3995 0.84806766577604353 -0.26890064186504081 -0.31468421838639005 71 71 71 2.0434534230605119 10 1285 13 1412 34 1356 46 1398 44 1383 40 1328 1 1374 58 1314 14 1391 3 1358 39 1306 43 1362 5 1342 2 1356 59 1309
3996 0.015695999662191512 -0.078319353478556647 0.13028464966366327 101 102 101 1.6666184800173478 33 1441 13 1413 11 1389 17 1397 56 1345 54 1313 55 1400 47 1364 48 1385 32 1339 37 1368 21 1323 8 1281
3997 0.67593391885592302 -0.33628390982058537 -0.084059775885344579 71 71 71 1.7481183790501653 38 1406 13 1415 31 1428 17 1399 45 1415 46 1403 1 1376 57 1342 56 1347 39 1310 29 1373 19 1364 59 1312 7 1343 35 1359 23 1319
3998 -0.64968186735400235 -0.29925625259593597 -0.29000103034691183 71 71 71 1.9938027111608896 38 1409 13 1416 11 1392 12 1417 45 1418 44 1390 1 1378 25 1413 18 1355 53 1364 58 1319 41 1338 22 1317 23 1322
3999 0.15279309816322023 -0.19322556893783319 -0.23581964950946366 71 71 71 1.5899513447429043 6 1373 13 1417 46 1405 60 1335 57 1348 56 1350 49 1415 50 1375 14 1396 48 1391 51 1322 2 1361 26 1374 35 1361 24 1311 8 1286
4000 0.0033987655444064901 -0.056055614788336205 0.48326376685906691 71 71 71 1.6736529357280685 33 1451 13 1421 36 1371 42 1422 31 1434 34 1367 44 1394 16 1363 18 1362 48 1395 39 1317 32 1346 28 1340 59 1320 23 1326
4001 -0.43295743080516563 -0.42738498120223256 -0.4402250601121897 71 71 71 1.7762752662221346 6 1382 13 1424 36 1374 11 1404 31 1436 12 1422 17 1405 60 1341 15 1405 49 1422 16 1365 27 1388 39 1320 51 1329 20 1353 19 1374 35 1366
4002 0.97857215596485303 -0.31682925975721182 -0.22647235623945067 71 71 71 2.2148526280087761 38 1418 13 1427 36 1378 11 1412 17 1411 45 1433 46 1415 15 1410 18 1368 3 1370 5 1359 2 1374 35 1378 8 1297
4003 -0.18750121558385935 -0.26125109289673537 0.012038452459485996 71 71 71 1.7039872116084527 6 1390 13 1430 31 1442 46 1418 49 1428 54 1331 55 1414 16 1369 25 1421 58 1336 29 1390 19 1381 2 1377 41 1355 26 1391 22 1332
4004 -0.24841713460113896 -0.24904753616805048 -0.13117597674469467 71 71 71 1.6589003511091072 10 1306 13 1431 11 1414 34 1377 46 1420 40 1353 60 1348 57 1361 54 1333 55 1417 53 1372 47 1383 27 1394 30 1395 39 1326 43 1381 37 1388 59 1333 26 1394 8 1303
4005 -0.10542297503656037 -0.1104836878824092 -0.5784753601991135 71 71 71 1.8482220422854561 6 1395 13 1433 17 1421 34 1381 46 1426 40 1357 1 1396 56 1372 55 1420 5 1374 19 1385
4006 -0.080214403118543276 -0.046376442777945601 -0.20873124702338786 71 71 71 1.9277236003997396 6 1397 13 1434 12 1433 60 1356 1 1397 47 1385 3 1378 19 1386 18 1381 59 1339 41 1362 23 1342 8 1306
4007 0.82394773403152421 -0.044562515649386084 0.14909653465933498 71 71 71 1.8144446987872871 6 1398 13 1435 44 1408 60 1357 57 1368 54 1339 18 1382 4 1415 27 1397 48 1411 2 1384 59 1340 52 1336 22 1339
4008 0.51065650844820065 -0.15242507801797245 -0.28521376887858529 71 71 71 2.0889853421101625 33 1473 13 1439 57 1374 50 1402 47 1390 39 1330 51 1339 37 1396 5 1379 7 1369 26 1399 52 1343
4009 0.34510520340302608 -0.06465052480516334 -0.36714109155527946 71 71 71 1.4922422324286051 10 1315 13 1441 36 1388 46 1431 14 1420 39 1334 28 1366 2 1392 59 1348 26 1402 52 1347
4010 0.31829148537380558 -0.017934120490094952 0.86278431357815033 71 71 71 1.8171145444204515 33 1478 13 1442 15 1421 57 1378 49 1449 50 1409 55 1430 27 1405 48 1419 51 1342 20 1377 19 1400 26 1403 22 1347
4011 0.57459220542341205 -0.064774823663254294 -0.00050094668924215158 71 71 71 2.2621109287325893 13 1448 31 1461 12 1444 17 1431 33 1483 34 1398 46 1439 53 1396 47 1397 29 1409 37 1400 28 1374 19 1405 52 1354 23 1353 8 1319
4012 0.7772582040249536 -0.16723855311575553 0.054964359595442595 71 71 71 2.0020342354096288 33 1488 13 1450 36 1398 11 1439 31 1465 45 1460 56 1391 16 1389 53 1401 4 1431 27 1417 30 1418 29 1413 28 1379 26 1412 35 1398 8 1327
4013 0.3680459153547424 -0.30920316104803541 0.60449721921685251 71 71 71 1.9210871994112828 6 1408 13 1451 11 1440 17 1435 44 1429 60 1371 55 1438 25 1442 53 1403 3 1402 30 1419 32 1386 43 1396 28 1380 19 1409 59 1358 52 1359 21 1361 8 1328
4014 0.07085013187946583 -0.059052556825515891 0.58876111592126779 71 71 71 1.9539387904445735 38 1451 13 1453 36 1401 31 1467 17 1437 11 1441 46 1449 44 1430 40 1376 1 1416 49 1456 16 1390 53 1404 30 1422 39 1347 29 1415 59 1359 7 1377 41 1382 26 1416 52 1361
4015 -0.62925273036168528 -0.22323418978877785 0.65305045615702051 71 71 71 1.4356148978071641 6 1412 13 1456 31 1468 40 1382 25 1446 14 1431 3 1405 7 1380 41 1383
4016 0.56263463135620273 -0.43054044346560488 -0.58804553489449396 71 71 71 1.7670007748443228 6 1416 13 1460 42 1459 12 1454 60 1376 56 1397 37 1414 52 1365
4017 -0.55668728700549286 -0.094326961484316518 0.73429589210794965 71 71 71 1.4040888397860991 33 1492 13 1461 42 1461 11 1449 31 1471 45 1467 46 1454 40 1386 58 1364 37 1416 7 1382 24 1345
4018 0.3673328931585903 -0.4222075837689005 -0.55335483345488679 71 71 71 1.6447595814168625 9 1344 13 1462 42 1463 12 1458 17 1447 34 1406 15 1445 55 1448 25 1451 4 1436 48 1437 51 1359 59 1364 35 1404 24 1346
4019 0.20498176260982498 -0.31118084711386329 -0.49410098740504366 71 71 71 1.7953192290489011 9 1345 13 1463 17 1449 40 1388 60 1380 49 1469 50 1433 16 1398 25 1452 4 1437 47 1410 3 1409 29 1423 5 1400 19 1417 22 1364 23 1363
4020 -0.40123517803621583 -0.20299144411974598 -0.18673150077376882 71 71 71 1.7965084416077237 9 1347 13 1464 36 1408 12 1460 17 1451 54 1369 55 1450 58 1369 4 1440 47 1413 27 1432 48 1438 19 1419 24 1348 8 1334
4021 0.34484967166960812 -0.26907943367365722 0.18760343476066588 71 71 71 1.6949221268334784 13 1466 42 1469 44 1446 40 1396 54 1371 55 1452 16 1402 3 1414 30 1433 39 1355 59 1368 6 1425 52 1373 23 1368 24 1352 8 1337
4022 -0.25700693097089028 -0.092235959693775571 0.70750134388885022 71 71 71 1.7047466203596306 38 1463 13 1467 45 1471 44 1448 49 1477 25 1457 43 1409 37 1422 20 1403 16 1403 2 1414 59 1370 7 1389 24 1353
4023 0.89700760480666353 -0.083867425300028858 0.16331837329511889 71 71 71 1.4345991023411555 6 1428 13 1468 36 1412 11 1461 46 1461 44 1451 40 1397 15 1458 50 1441 25 1459 47 1415 27 1440 48 1444 51 1367 2 1418 52 1375 35 1410 23 1374 8 1341
4024 -0.35799694124333309 -0.19234735521328175 0.23269964979474667 71 71 71 1.8389267424229019 33 1504 13 1471 36 1416 31 1481 34 1411 45 1476 18 1418 48 1446 43 1413 5 1403 28 1400 41 1392 23 1377 24 1354
4025 0.3036678471817959 0.019136427719038493 0.8218808797865369 71 71 71 1.6882316747816746 6 1431 13 1472 17 1454 34 1412 60 1387 1 1427 49 1481 54 1377 16 1411 53 1426 14 1444 29 1435 37 1427 2 1424 59 1375 26 1433 22 1369 24 1355
4026 -0.69294517286006907 -0.26554321194063879 0.202683176320956 71 71 71 1.6622060307586226 33 1509 13 1475 11 1466 31 1486 12 1470 34 1420 1 1434 50 1449 4 1452 47 1422 48 1455 5 1409 28 1404 19 1430 2 1432 22 1377 23 1384
4027 -0.43564615491326458 -0.14052118525074775 -0.22767326189898801 71 71 71 1.4460777249632224 6 1439 13 1478 36 1421 44 1460 15 1469 55 1465 16 1419 25 1467 58 1384 27 1450 32 1405 43 1422 51 1378 37 1438 5 1413 20 1415 2 1437 24 1365
4028 0.73222017085453484 -0.3043620057790129 -0.3136960184702256 71 71 71 1.8103079337271257 9 1365 13 1480 42 1487 11 1469 12 1477 16 1420 47 1427 37 1440 2 1442 59 1387 35 1428 21 1381 22 1385 8 1353
4029 -0.22741553975282391 0.08495363406227141 0.70656270632548068 71 71 71 1.8212426552915002 33 1518 13 1481 31 1493 44 1469 15 1474 57 1411 27 1457 14 1459 30 1446 29 1450 43 1428 51 1383
4030 -0.15043786338344911 -0.12577146572702191 -0.17655692716218202 71 71 71 1.7685608044024417 38 1476 13 1482 42 1490 31 1494 34 1426 45 1492 1 1444 49 1496 50 1457 55 1471 18 1421 4 1459 14 1460 30 1448 29 1451 32 1413 21 1384 23 1389 24 1369 8 1355
4031 0.25703533655006372 -0.067843596290145913 -0.13176160430896072 71 71 71 1.9313724681611248 9 1369 13 1483 12 1485 34 1427 45 1494 50 1460 55 1472 16 1426 58 1391 14 1463 3 1432 43 1431 7 1407 41 1408 52 1391 35 1432
4032 0.46726200212987912 -0.13716163080848137 0.57192993201013609 71 71 71 2.1160571435430966 33 1527 13 1486 42 1498 12 1487 34 1430 40 1413 60 1407 58 1396 4 1469 3 1438 5 1422 28 1416 59 1395 22 1397 8 1364
4033 0.093438973578581996 -0.26955745680475091 -0.15722816972252074 71 71 71 1.8155315320745498 9 1375 13 1487 11 1476 34 1431 46 1483 54 1396 53 1451 47 1434 48 1475 39 1380 37 1447 28 1417 19 1441 2 1450 7 1412 41 1412 23 1395
4034 0.83113727825965866 -0.2228719524145488 0.32723060917192837 71 71 71 1.9011038046498481 10 1358 13 1489 11 1481 25 1488 27 1474 39 1384 29 1461 43 1439 51 1397 7 1414 21 1398 8 1367
4035 0.64668165040956538 -0.16641327026225805 0.46279772903644928 70 70 70 1.7493362053197887 38 1487 13 1494 31 1511 12 1493 17 1483 45 1506 56 1420 49 1504 25 1490 18 1436 58 1401 47 1442 27 1479 14 1474 3 1448 30 1461 20 1430 41 1417 26 1458 22 1403
4036 0.89389775213957456 -0.078295225120529832 -0.45666202522779836 71 71 71 1.6966164799768242 38 1489 13 1498 11 1486 31 1516 57 1432 39 1391 43 1443 59 1404 7 1421
4037 0.66069379636599757 -0.28375265792118554 0.57372208004918068 71 71 71 1.8720935452262406 10 1366 13 1500 17 1488 45 1509 15 1492 27 1485 43 1445 51 1407 24 1382 8 1375
4038 0.60193096630370391 -0.33821416919829383 0.60159002670750961 71 71 71 1.870859815535292 33 1538 13 1503 11 1490 31 1522 40 1424 1 1464 55 1484 47 1448 14 1482 29 1468 32 1430 37 1457 5 1435 20 1439 7 1424 41 1423 35 1444
4039 0.049222787069481383 0.016207988028280811 0.64647234095274553 71 71 71 1.8772183943985326 9 1386 13 1506 31 1527 12 1503 40 1428 15 1497 54 1416 25 1504 18 1443 58 1415 3 1455 30 1471 37 1460 5 1440 28 1430 7 1428 52 1410 22 1412
4040 -0.26392251138671152 -0.39519424111737356 -0.33402193448719214 71 71 71 2.0010999100795979 10 1371 13 1508 46 1495 44 1493 54 1418 25 1505 53 1463 58 1416 27 1489 30 1472 48 1488 39 1398 43 1453 51 1412 7 1430 23 1408
4041 -0.5071428898409085 -0.38089009425245907 -0.037210671220124364 71 71 71 1.4239673556484382 6 1464 13 1513 55 1492 32 1439 37 1468 5 1445 2 1467 59 1420 8 1383
4042 0.2216061814991222 -0.32846446520380562 0.35793256659730305 70 70 70 1.8505397581431959 6 1467 13 1515 17 1505 34 1452 15 1501 1 1471 57 1443 49 1523 29 1479 43 1461 7 1440 35 1453 22 1419 23 1413
4043 0.50265791911849744 -0.057061242045285621 0.3707354830678169 71 71 71 1.7213079024559443 6 1468 13 1516 36 1452 31 1534 34 1453 46 1502 49 1524 25 1513 18 1455 53 1469 3 1464 51 1420 5 1447 59 1422 7 1441 23 1414
4044 0.53678826983008354 -0.14484919135398791 0.63676961847144353 70 70 70 1.809636456176237 6 1474 13 1521 17 1514 50 1492 14 1497 30 1485 43 1464 51 1426 59 1430 24 1395 8 1388
4045 -0.20368767625794421 -0.038251437913612144 0.76614624032630174 70 70 70 1.7666894357473546 38 1509 13 1526 31 1544 17 1516 44 1516 54 1432 58 1430 47 1467 30 1491 29 1488 32 1450 51 1432 35 1462 23 1424
4046 -0.43361067283286764 -0.058344458770260933 -0.19669587573467345 70 70 70 1.8793167558598487 10 1393 13 1527 49 1532 50 1494 55 1499 47 1469 14 1505 30 1493 29 1489 32 1451 51 1433 5 1463 28 1448 35 1465
4047 0.28959728346833996 -0.32031200956321848 0.62673409347662701 71 71 71 1.6817450299686179 9 1409 13 1532 42 1537 11 1510 31 1551 34 1472 44 1528 40 1457 60 1439 1 1492 57 1462 56 1462 18 1467 58 1441 28 1455 20 1468 59 1443 35 1471 22 1433 24 1405
4048 -0.44615884623839536 -0.24387010655010002 0.64048710905929052 70 70 70 1.7994021063637462 38 1520 13 1533 42 1539 11 1513 34 1475 46 1518 44 1529 60 1441 15 1517 57 1465 56 1466 49 1540 18 1468 47 1478 32 1463 43 1475 37 1494 20 1469 2 1488 23 1435
4049 0.1324984630637133 -0.26947459323893752 0.34157778771036884 71 71 71 1.4315187472882698 9 1414 13 1536 36 1468 16 1469 25 1535 58 1448 27 1512 43 1477 51 1443 37 1495 41 1455 52 1434
4050 0.30727182566147315 -0.14937689649951275 0.035448131163271085 71 71 71 1.7115323990359825 38 1525 13 1538 36 1469 42 1543 17 1529 44 1532 54 1445 16 1470 53 1488 27 1514 14 1515 29 1500 28 1459 2 1490 7 1467 41 1460 35 1473 23 1439 24 1408 8 1407
4051 -0.62419682165914048 -0.21476302567295161 0.56289849101657463 71 71 71 1.6067602015849236 10 1406 13 1539 36 1471 31 1553 34 1480 45 1542 44 1533 60 1445 15 1523 1 1497 16 1471 27 1515 14 1517 39 1427 32 1468 43 1482 28 1462
4052 0.32735606927546423 -0.26534332423617685 0.54428889342510978 71 71 71 1.7925402540651039 9 1417 13 1542 42 1546 31 1556 12 1539 17 1535 45 1545 1 1500 57 1471 49 1548 58 1456 4 1520 27 1519 30 1507 48 1516 37 1502 20 1475 19 1498 2 1494 24 1411
4053 0.70468191999962659 -0.36838853595446319 0.41964325383125622 71 71 71 1.6229849768979325 6 1494 13 1543 12 1540 15 1526 1 1501 56 1475 54 1451 55 1510 53 1491 27 1520 48 1517 43 1485 41 1464 26 1486 21 1430
4054 0.65670096082621487 -0.053409630608013757 0.52111574386077353 71 71 71 1.9003542745669462 9 1421 13 1546 36 1475 11 1524 31 1557 17 1539 34 1486 44 1536 40 1468 1 1503 49 1550 55 1513 53 1495 4 1523 27 1523 26 1489 21 1434 24 1414
